ply
format ascii 1.0
element vertex 688
property double x
property double y
property double z
property uchar red
property uchar green
property uchar blue
end_header
-0.5613988763450725 -0.1504084420128830 6.6070515506404863 228 182 135
-0.3185295847843173 -0.1184699121621781 6.4104449576763676 73 109 141
-0.0754745654595387 -0.1011575210583274 5.7784523088629429 255 168 166
0.4555427467708194 -0.1509813596918469 5.8506403061649692 40 37 44
-1.0619730532209868 -0.0860876392436489 9.1482148945577038 255 255 255
-0.0849894504178430 -0.1125815143618914 5.8045906388082331 255 255 255
-0.4912678034732294 -0.3220076116425630 6.2966901519812568 229 193 139
-0.7887164190222108 -0.1343724124313685 8.3035932299324067 56 34 32
0.4341112193709539 -0.1606306335130911 5.9978727676579151 120 120 132
-0.5325532050582235 -0.2359263297661983 6.4082590973396565 58 61 68
-0.5410226719408783 -0.3515492760058393 6.5237400397269214 39 76 72
-0.3335256163580951 -0.4447124895479470 7.9457049524840464 177 243 227
-0.4984401123452101 -0.3089484447922105 6.3047184011783424 219 181 127
-0.5096704850613292 -0.3132144010685883 6.3571149192187946 229 201 159
-0.6423001841437629 -0.3886906999109108 7.3428490704196596 167 175 175
-0.5236526352731400 -0.3137370098458870 6.5053958017622131 211 153 112
-0.6522741195708759 -0.3910110862613177 7.5934769624316756 255 255 255
0.1860530154410820 -0.2335935135922133 6.5655484047418140 96 79 63
-0.5264275036236012 -0.3037626047468052 6.4309644302099436 255 176 125
-0.6647401054272785 -0.3637738680749399 7.5879460933001246 67 55 45
-0.5381322892608824 -0.2834367260511057 6.5349600014804201 214 205 185
0.3713592169774642 -0.1660863498544183 6.4810845845521143 33 26 27
-0.5315687339475159 -0.2483116378285736 6.4990042383679505 78 69 47
-0.5412509089459260 -0.2376350450024060 6.5267884540116112 45 53 41
-0.5537169204819664 -0.2346282551321321 6.6754251180093904 81 59 57
-0.5382996627990609 -0.2218519236783740 6.4906157853259971 156 135 121
-0.5210569694063502 -0.2213706700937683 6.3493650147526228 49 47 46
-0.5637883532016293 -0.2179840534180643 6.6746631564702765 235 179 146
-0.5200226393759549 -0.2100263249705239 6.3370941448888640 148 132 133
-0.5697743491127439 -0.1895562001664367 6.6042809464890961 61 64 70
-0.5656725304132585 -0.1796644434426290 6.6596184585872900 245 191 130
-0.5506523570096300 -0.1701793873100002 6.5320225652928574 138 119 91
0.3105377971106544 -0.1809011209997562 6.4532989364074202 168 143 138
0.1959076817439312 -0.0449623333208483 6.1832389358392712 112 110 105
-0.5162399410384552 -0.3214621824460349 6.4174244290698130 55 81 73
-0.5634378135272277 -0.2822695497597241 6.6356513818382918 37 26 23
-0.6616409045912516 -0.3069896319877299 7.6313179042433390 255 255 255
-0.6063228506762839 -0.0593554029153593 7.6780949570930686 78 53 52
-0.4936286252369530 -0.0480097675522706 7.4229234304974314 62 28 28
-0.2089769762055703 -0.1365830572297326 5.9487001596509845 227 215 215
-0.5203652270735207 -0.3482803887592176 6.4564912394653637 77 61 43
-0.5422585844222761 -0.3311833027617312 6.5840833125946299 89 81 64
-0.5169804332036319 -0.3078351039259810 6.3882594214499422 76 53 43
0.3273770312447175 -0.2013835900193347 6.4414036882379211 161 153 144
-0.5552606804461526 -0.3069696309809589 6.6578820732830053 104 73 59
-0.5621538809327938 -0.2996460187461937 6.6796691570146818 255 190 129
-0.6432788923708448 -0.3299224723573835 7.3799890548323450 255 255 255
-0.5290388502203284 -0.2808120888266061 6.4468994285368053 153 83 60
-0.6565227284827070 -0.3253593192350829 7.3713347557001665 157 150 154
-0.5326528725174486 -0.2786852778540017 6.4773376451861662 134 97 102
-0.5358689432792649 -0.2698719537601171 6.5165655508040752 255 255 211
-0.5325979345141522 -0.2648598313157031 6.4601822026111728 246 175 139
-0.5773488177889256 -0.2496126330541875 6.6254529208540012 42 41 41
-0.5677629318660113 -0.1785271476875460 6.6844074143320507 80 64 44
-0.5511094760810973 -0.1842748592512554 6.4114046656314727 255 255 255
-0.5628942639968388 -0.0625620780540543 8.1328702520282423 231 201 182
-0.5454914193549224 -0.1588519279785633 6.5141290864861139 182 127 103
-0.6788704073134124 -0.0565842385024506 7.7400308599985808 255 248 214
-0.4520642842450973 -0.0256164083835875 7.4299289561258837 110 107 134
-0.0771392223415796 -0.1213066330716500 5.7960141816768109 73 48 50
0.2874343946553555 -0.0745588705247423 5.6908227699694409 73 89 75
-0.0875119581992414 -0.0967823341684600 5.8181895200700202 68 53 57
0.4071229497493189 -0.1547848646045414 6.2097607959077372 125 118 113
-0.7170653973408678 -0.0720265490169349 7.8637502512379314 73 53 47
-0.0864120959126692 -0.1140520987551874 5.8245872152920271 255 255 255
-0.0824024953929812 -0.1136962180984653 5.7958389853927272 255 255 255
-0.1290298043155117 -0.0342325511969359 6.1220250975347970 210 186 173
-0.6550539283608304 -0.1542877570358311 7.4087653185603566 148 158 173
-0.1302656244580350 -0.0330228955602007 6.1276976410059829 210 186 173
-0.5321821446390697 -0.2895626909812413 6.4279621904477979 32 21 22
-0.5215241667880481 -0.2442458932542519 6.4618765858488434 120 114 109
-0.5581845316359307 -0.3575784815844937 6.6842841933381463 238 211 154
-0.8085636732041092 -0.4398141468644282 7.3728176427975995 165 164 162
-0.5419170738175165 -0.3322378076780322 6.5342104943996713 255 200 153
-0.8218050187774356 -0.4296780559949028 7.3942267476286148 255 255 251
-0.5344591581329039 -0.3231955437264616 6.5208170785576431 74 92 86
-0.5217995680566225 -0.3139921958344671 6.4488059004398899 96 79 75
-0.5265920495554927 -0.3173597607781665 6.4960199726355423 242 205 149
-0.5345605995864005 -0.3184950196061248 6.5447621509991114 68 71 64
-0.5310024884844479 -0.3107875239178617 6.4664642243367947 208 163 113
0.4659150845604735 -0.1672795904099335 6.0907885641813682 20 16 16
-0.5234965589983960 -0.2956342840495345 6.4491358735432280 206 195 172
-0.5366676305436856 -0.3022454870234745 6.5203864097883768 66 90 78
-0.5296569976735837 -0.2984301014724306 6.5407583140334733 123 100 66
-0.5524040102399964 -0.3098387334134513 6.6994841405638175 30 28 44
0.5045394568357754 -0.2427719636200101 7.9096694225898219 32 33 33
0.3666639160515102 -0.1752917616274292 6.4725229996026705 108 108 110
-0.7174743066793989 -0.2953425083767249 7.1483490234240374 223 222 208
0.3907599921045741 -0.1484481663430458 6.3448739132178824 100 107 116
-0.5336031049104463 -0.2541584405512883 6.4712990671051029 120 76 53
-0.5429199347768519 -0.2225651370889487 6.4976683609660748 181 145 117
-0.5411658612858381 -0.1945555639603061 6.5240717741325467 97 86 73
-0.5611861114759977 -0.1743706174070717 6.6546284625021563 253 205 155
-0.5474528590490250 -0.1637696284003234 6.5413943078887415 32 27 22
-0.5642065850464508 -0.1491789108028645 6.6531188517276165 40 49 56
0.0391043117280090 0.0002901450895312 7.1950717073295722 76 22 15
0.2031012669650849 -0.0444894586238011 6.1793281880994995 78 77 61
0.0096742485882104 -0.0131572853947030 6.2818095280511512 240 217 208
-0.6582826436152254 -0.3612584619765416 7.5648154341128695 51 60 73
-0.5653283743806929 -0.2066251142133690 6.5792026558377135 135 130 80
-0.0628778753674533 -0.0230753564346209 6.2132440906097708 208 196 187
0.3674623423022286 -0.1593060211576804 6.5067850226251798 126 115 96
-0.5268193041480514 -0.3177052275049782 6.4970170262837046 246 219 153
-0.5602729307643303 -0.3364072578449745 6.6851654300993992 255 184 132
-0.5409747771151063 -0.3248568519993438 6.5923487736874362 255 227 152
-0.6534191667322519 -0.4178978805557947 7.5964719034432271 255 255 255
-0.5437560607292545 -0.3146371941091374 6.5651180128551117 250 169 130
-0.5596448425796462 -0.3083457008110680 6.6296179108293272 250 226 188
-0.5476990955944168 -0.2944685255839164 6.6042577400339733 254 136 102
-0.5613250289812955 -0.2917001863751808 6.6688700536429026 107 69 49
-0.5429404422720703 -0.2791950241709204 6.5670456071235037 62 54 50
0.3799549302899479 -0.1671229906109795 6.5136701769640464 37 28 27
0.4088269241861428 -0.1565770479972136 6.4136883016721020 29 26 30
-0.5560888877937277 -0.2653103806672857 6.6472876530114693 187 90 66
-0.5439844472639841 -0.2524061393827962 6.5352688454369154 74 82 67
-0.5430946656021831 -0.2465636912703404 6.5051482074447939 168 135 110
-0.5473633111795644 -0.2438153308701939 6.5453776205317782 216 169 117
-0.5419196468059146 -0.2375010435321457 6.5278710143882526 26 31 41
-0.5628659673147495 -0.1564332149975105 6.6240426797433312 42 35 27
-0.5479715211114874 -0.1510913167781694 6.5302907601259816 36 46 45
0.1740778686430869 -0.0742543503282697 6.3378861127505157 186 144 146
-0.2861901302174950 -0.0943918196898885 6.3754257799229084 207 241 255
0.0734178654889809 0.0276608281690582 6.7463478312979417 255 255 255
0.0551512374890514 0.0063041390734841 6.5175481254139287 255 207 192
-0.1322914186794065 -0.0217232851308360 6.4220888469794710 197 169 164
-0.0834940795286223 -0.1120380368924067 5.8159099948581474 255 255 255
-0.8070858853277442 -0.4434914812386402 7.3758625325866651 184 182 191
-0.1057139928125491 0.0212423890644159 7.0943245017829710 62 61 67
-0.4443720183607347 -0.0126155578014653 7.1118071189152205 183 167 134
-0.1398371031403208 -0.0218329554458900 6.4340305893039877 173 156 151
-0.0877693759229184 -0.0368101972471946 6.2120196201820015 120 107 115
-0.5593414206474724 -0.1566639229497008 6.5885872278530195 51 42 41
-0.5649001880134145 -0.2518033583616917 6.6310348132481245 46 42 41
-0.5616145050923352 -0.1799362006039518 6.6881647326148910 44 41 26
-0.6499836904987850 -0.1370465480033892 7.3233704127303314 189 176 178
0.2505475896574040 -0.0782605831591298 6.2060313187859384 255 245 211
-0.4652361960836623 -0.0604023439517305 7.3403723883258687 55 49 54
-0.2847918516597079 -0.0854077566889259 6.4246938116446382 71 78 89
-0.7110760689175217 -0.0755839867187198 7.8531683765227065 45 30 31
-0.6791923840434960 -0.1919119037186480 7.5057983106082178 246 250 255
-0.4939969313266214 -0.0573181202684414 7.5066249906871780 58 49 58
-0.5543091998411132 -0.3301953301355874 6.6653333089991698 63 85 86
-0.8198002996407419 -0.4205600682174507 7.3664922494284175 255 255 253
-0.5629685261994328 -0.3248760171996460 6.6171675143792630 98 85 73
0.3269423910393134 -0.2084036661283875 6.4657012740141298 104 117 89
0.3465899314343041 -0.1957364493290106 6.4652919187681572 64 56 63
-0.5520377835373780 -0.3050669215833107 6.6379397021706783 174 156 129
-0.5543700638332010 -0.2986228764108250 6.6451220663209227 48 51 45
-0.5546222131511302 -0.3026601169018956 6.7089537649768589 245 208 159
-0.8623389489719183 -0.4699498621160896 8.9725675440807571 126 128 126
-0.5687229970142774 -0.2736393630420557 6.6771217041491324 255 234 171
-0.5631643091719601 -0.2738575903580318 6.6911729142716654 57 46 32
-0.5504597627184905 -0.2578840413289957 6.6460766360889254 255 219 154
-0.5715224348186803 -0.2455389903260520 6.6314692587793340 85 92 100
-0.5622776861980210 -0.2325370745782211 6.6638462397570377 241 185 127
-0.5394745791303955 -0.2134685303146284 6.5217261775066664 91 76 73
0.4870853751167185 -0.0623607548705671 7.9176082647928343 255 255 255
0.0682043808158969 -0.0622941171623075 7.1142832851549063 255 255 255
-0.5593783498805170 -0.1609395388565250 6.6083684086499161 100 51 30
-0.6752249651896375 -0.0976043001118619 7.5121997702217316 104 108 96
0.2537190626781934 -0.0777205877577365 6.2042361532890036 187 217 157
0.1621729203088405 -0.0887883909134627 6.1772417338187742 129 239 255
0.1661401674324170 -0.0838759052975769 6.1853482928141492 29 24 26
-0.3071585196976457 -0.1126942155672912 6.3987952069189049 255 255 255
-0.2888216171611138 -0.1030475741475045 6.3984219448393862 255 255 255
-0.2913177644411549 -0.0857342560220788 6.3538678434863174 126 131 125
-0.2954442702264343 -0.0637753674637246 6.4288392951240931 96 96 98
-0.3062246148459531 -0.0840326956649398 6.2922750062499277 25 39 80
-0.2941324384139976 -0.0819185755506099 6.2988932211570168 53 61 66
-0.2875982680705288 -0.0598456502592404 6.3183777229521914 115 118 152
0.0705542323598338 0.0028741746470331 6.3502471428372580 73 53 66
0.3719481608225330 -0.1601833070979639 6.5196900077873243 148 126 104
0.0575376163119401 -0.1563386290306389 9.1142861707233997 38 31 31
0.3685316440811561 -0.1016903070316620 6.7353993634795568 41 24 24
-0.3099405147086893 -0.1013557140876728 6.3795015600893148 55 67 81
0.1570159405737123 -0.0517389266518134 6.2901704683327129 164 190 131
-0.3092889138447072 -0.0822707272831035 6.3766299217087727 255 255 255
-0.2930497410521669 -0.0814045500863273 6.2963113858583730 52 61 65
-0.2913386162861371 -0.0495424840497558 6.3235032144599899 135 129 123
0.3692187712214617 -0.0994346788584076 6.7330815288797883 22 16 18
-0.3131106743429624 -0.1024198153690465 6.3837762335589474 57 75 95
-1.2480710997716578 -0.2208080969165257 9.9457907347805357 75 66 60
-0.7789325538834208 -0.1101493630638750 8.1465174617476173 255 255 255
-0.5389952256828523 -0.0538035641591149 7.5992950910328210 55 45 59
-0.5567336951528589 -0.3277572671749281 6.6886579632885779 92 71 51
-0.5429920474306075 -0.3100134518418531 6.5884762529471175 146 83 72
0.1749463248431880 -0.2837351090921081 7.6507528135139298 255 191 75
0.1474027805138713 -0.2696864008294936 7.7353760867883938 49 31 14
0.5319658680145660 -0.2169376498185302 7.8205982653242820 40 30 30
-0.5617067705249383 -0.2739922345713567 6.6887293982191096 44 50 46
-0.5537839698714785 -0.2647153753802529 6.6439367003438141 187 90 66
-0.6665852843714675 -0.2907916363258890 7.3675064798780090 217 209 208
-0.5764359177761992 -0.2246132447684224 6.7031709114307452 121 52 30
-0.5702282487075601 -0.2155236117100561 6.6746376370792211 77 93 75
-0.5658436158751778 -0.2025650003365904 6.6866958255888003 70 61 43
-0.5651970949661999 -0.1822735220084999 6.6579285608329215 227 175 128
-0.5636324326149051 -0.1683341770825962 6.6369459882305044 255 137 88
0.1900457581927946 -0.0882632906816798 6.2649148625214428 26 27 28
0.2624771138846443 -0.0784184873082401 6.2203686837812135 27 22 19
-0.3522802150723791 -0.1204245618130754 6.5726397063373856 144 150 122
-0.3293851882274433 -0.1022136760538585 6.5623990385408817 177 244 193
-0.3020564262178241 -0.0919881485904429 6.3803331632238685 255 255 255
-0.3059483259623321 -0.0840411803665765 6.2920451772238444 25 39 80
-0.0729496476681864 -0.0166283511765566 6.3404764305191845 239 211 197
-0.0681208518835452 -0.0165848722298526 6.3416621207274106 224 193 182
-0.5711772714133350 -0.2426316817749823 6.6304087551151447 86 94 100
0.3600743590147035 -0.1200597311158074 6.4886536561112846 132 95 52
-0.5694949717802574 -0.1779728083584579 6.7047455507091263 33 24 33
-0.8810636504236726 -0.0649210034260099 8.7543768670150488 106 78 90
-0.2991319019138245 -0.0905888657002771 6.4279455215655217 253 251 255
-0.3000305789170631 -0.0877149329043730 6.2971135295155767 255 255 255
-0.3091881593560767 -0.0841177193729296 6.2790680345659249 26 31 41
-0.3201739084159659 -0.0837587799282012 6.2691330063734636 30 27 25
0.3622646059630109 -0.1171839322438923 6.7334347491092714 140 99 70
-0.8873435055902995 -0.1523703197110494 8.7548397563860920 255 255 255
-0.3524842930690305 -0.1240371268291340 6.6124052840614409 45 36 31
-0.2998164042138190 -0.0917826421047642 6.3545110659365127 255 255 255
-0.2994717931349335 -0.0882215066266790 6.2948678512498022 255 255 255
-0.7988260741540117 -0.2949224717078468 8.3852525473438710 128 202 203
-0.6608672471827368 -0.4075433567416636 7.3822593383420765 230 238 240
-0.5567540147806909 -0.3294874642960828 6.7028636769054959 32 33 29
-0.5595138366790449 -0.3097764037247070 6.6984342757871591 118 91 97
-0.5611135412791722 -0.2809707026214979 6.6973808542088795 245 147 101
-0.5602746120779960 -0.2531751134999296 6.6690851502181152 104 118 103
-0.5625793446686188 -0.2449585075834480 6.6946426474784664 206 162 104
-0.5620888389098539 -0.2333348125278138 6.6850679947996623 45 63 47
-0.6545015854839353 -0.2264645600386507 7.4285008229442377 247 255 252
-0.5632527027694518 -0.2101986400636059 6.6858460113203133 33 45 42
-0.5594438183078755 -0.1977886367511209 6.6489325625192741 254 216 134
-0.8262846895089037 -0.2012124371011812 7.3629422217351124 209 217 197
-0.5649779968708184 -0.1789931177015521 6.6691596962238942 52 91 81
0.2182007454932126 -0.0875013357283390 6.2774278124430243 31 30 34
0.2628029039374571 -0.0807563643144739 6.2284925897123200 255 238 193
0.1868887378746531 -0.0797601102974795 6.2648296671743813 31 41 36
0.1996496312723109 -0.0825356719155289 6.2245035881004052 67 27 21
0.2122830958682509 -0.0811210456416682 6.2008948673784703 233 249 255
0.1610616209530616 -0.0745832864646203 6.3239508838368446 141 112 69
0.1590565541893690 -0.0848814607306412 6.2000413071433913 20 17 20
-0.3017402061540022 -0.1060911578587843 6.3899382893052845 55 71 79
-0.3263216095172946 -0.0868198092523364 6.5747007597169400 255 255 255
0.1638730931855527 -0.0586798346817514 6.2081673177700107 116 119 119
-0.2982827906325806 -0.0837163432637805 6.2900267513347980 60 62 82
0.0854984216816759 0.0154165935926940 6.5782725091651297 177 124 102
-0.3026766248412054 -0.0513558873110805 6.4275317971407970 89 85 78
-0.3026388438640982 -0.0535533284033342 6.4027828324696534 59 78 84
0.1009224613786691 0.0035041414858148 6.4154267834792815 255 255 255
0.1060053876771119 0.0049322879434527 6.4081733748916481 98 73 78
-0.3011830326604907 -0.0296771555549886 6.4460167723449544 132 112 110
0.3898061268843256 -0.1486653520595682 6.3392994597843755 106 106 118
-0.8176300670915962 -0.3120372655446956 7.3577446942593756 242 245 230
0.1771246028286340 -0.0492197892516391 6.1701681431167721 106 60 55
-0.2912006960160434 -0.0802666234955543 6.3143031307056594 255 255 255
0.2474554535068220 -0.0755723570955707 6.2270047251381246 235 251 255
-0.5923200989996071 -0.0656637243500302 8.1482017325649654 56 59 82
-0.2828242308071967 -0.1035221086635715 6.4029866974502134 33 29 32
-0.3253655895182119 -0.0905611117544615 6.5587513654278427 255 255 255
-0.2958282284168557 -0.0848237256363863 6.3482869720366999 255 255 255
-0.3481495204319707 -0.0775097316800980 6.3491731817906931 30 37 56
-0.2985209132833426 -0.1002657493224289 6.3859532588927816 100 65 64
-0.9113500012454984 -0.4348716625176938 7.3637786937232068 255 255 246
0.1747581893710143 -0.2962059678326441 7.9258678042793385 95 65 39
0.3713395544651067 -0.1514931515166677 6.6977712039743516 155 163 149
0.3767023564720685 -0.1345017194866340 6.4646526376445408 69 47 41
-0.5647756774967700 -0.2204990461946328 6.6945884621599880 241 140 98
0.2824845447635153 -0.0851649525097580 6.9750955480116028 129 133 119
-0.6557932219765105 -0.1557661506318014 7.4111816686245175 255 206 153
0.2060289035378231 -0.0839823419115926 6.2009275465265654 12 27 46
-0.5208545357671677 -0.0445027063778338 7.4499484758287551 255 251 195
0.1579186493737383 -0.0515092467763284 6.2928704560021487 235 254 213
-0.2691854799454306 -0.0971030507537525 6.3502680623181140 255 255 255
-0.3134950319925631 -0.0760115728421043 6.5240304856870202 174 167 190
0.1460899594810236 -0.0486261729849878 6.2723919439778850 53 101 95
-0.3147373917363572 -0.0462130445552285 6.5202813471111982 85 111 100
-0.3169481944426594 -0.0352643120412554 6.5285649758903288 62 69 74
-0.3066391056599512 -0.0477852956178584 6.4457839930955139 140 181 152
-0.6387311105329816 -0.0659996747005935 7.9000669066923139 74 75 71
0.0949592251009374 0.0219295763523898 6.7469663479264836 166 148 138
-0.3123929758914973 -0.1203458211057803 6.4025103943691644 83 112 126
-0.6628842122854830 -0.2742083769282626 7.5082310992193326 227 247 255
0.5123163566622332 -0.1272541812123415 7.8811567261664583 57 52 46
0.5098758140812474 -0.1209024742326845 8.1771674549659998 55 51 48
-0.7993864156709418 -0.4032297740519992 8.6159726846679661 86 78 80
-0.7910985546168591 -0.1283166330314628 8.3063439467378632 70 49 45
-0.5525506388528796 -0.3155137178097972 6.6633897189463571 80 61 43
-0.5614531848767923 -0.2833306340213927 6.6804067016077413 255 249 176
-0.5618584700461781 -0.2809901908146007 6.6717597444258754 255 235 163
-0.5601630859004282 -0.2759291315796140 6.6759185096923126 87 106 70
-0.5598024535264519 -0.2658162119101645 6.6790540373791005 252 199 140
-0.9087077937778899 -0.3208279773467562 7.3526154357194393 248 241 226
-0.6650503820447182 -0.2801130852684923 7.3722642110553087 139 135 126
-0.5590261994956603 -0.2241496539277081 6.6702240156119554 54 63 50
-0.5610649466499650 -0.2177678964550012 6.6714361371722930 233 185 126
-0.5619245159145070 -0.2043127291241187 6.6566782687058232 53 67 49
-0.5663225975211045 -0.1971673059849577 6.6940575836000269 88 89 131
-0.8224637927604400 -0.2006253791623717 7.3585914963300825 204 207 201
-0.6685146257935140 -0.1761135322326032 7.3652169255599356 133 134 127
-0.6446343778795145 -0.1388773183484327 7.3601765284259342 75 76 88
-0.5676249763399746 -0.1594359400438695 6.6912900665431065 249 95 62
-0.5671322295153439 -0.1576784906086314 6.6743268129249191 191 168 114
0.1945936650434861 -0.0870135056307337 6.2657621126686873 131 165 232
-0.5638090791504500 -0.1560796205532095 6.6579322256161824 243 208 178
-0.5662644057964940 -0.1553942834490905 6.7058369682254657 187 153 111
-0.3205554484610738 -0.1225240653702940 6.4929133514788235 255 255 255
-0.2986617490730992 -0.0972581710497731 6.3981570036583175 34 39 47
-0.4496437063929805 -0.0108730001992765 7.1285401767481682 208 171 134
0.1517030162971472 -0.0465775200787897 6.2940838790676699 24 25 27
-0.3026515119337231 -0.0572689930873005 6.4487325801288282 158 155 145
-0.8260141713529189 -0.3287133875386630 7.3625601124406002 248 224 210
-0.8063827208742751 -0.2960534811198396 7.3480768616646817 166 164 155
-0.8233159886328708 -0.2155422672435850 7.3617643178751120 152 146 144
0.1065451407014730 -0.0348963216341859 7.0435948798525079 47 54 65
-0.3017991254901081 -0.1112889499193113 6.4028420961067809 28 25 25
-0.3269841825327482 -0.0915556221536636 6.5661172992511796 255 255 255
-0.3062722872623987 -0.0972318836233631 6.3542116545144900 223 246 255
-0.2921454258330506 -0.0819393783957817 6.3661653248630694 171 183 175
-0.8040004079462975 -0.2926375803240595 7.3470104979815947 167 161 157
-0.9012736216049015 -0.2295780442870368 7.3950237042477411 255 255 255
-0.2817692381343206 -0.1028974489838667 6.3990653059141058 35 35 33
0.1490471112473410 -0.2732016058016823 7.7490297818049774 57 58 36
-0.6449816075633176 -0.2527814764907336 7.3733458236201761 255 255 255
-0.6737208012967872 -0.2128827665896359 7.3654845263268589 174 180 181
-0.6683397552300504 -0.1992190334392926 7.3685105589701161 127 128 118
0.0922802370756145 -0.0118930586822883 7.0566795126500299 173 161 162
0.1630640558332523 -0.0744116014320521 6.3235496211035391 83 110 123
-0.2951670347992272 -0.1027789722016706 6.3882789839910110 133 161 219
0.0283550021537233 0.0284196790711784 6.9282688248963540 255 255 255
0.0358590889068670 0.0192905627643718 6.7665979020998552 247 227 219
0.1077860319721809 0.0218620099034093 6.7207290864875286 189 174 148
-0.1630991248241682 -0.0158261752564259 6.5948700112179619 177 163 174
-0.3067856942332561 -0.0574622148939631 6.4763123504685902 109 102 109
0.5356368699123567 -0.1395865410001491 7.5809453277008298 54 51 50
0.3640991448183964 -0.1184908366236073 6.4968887704859393 132 93 59
-0.3181013916851473 -0.1193616685107881 6.4618045832912241 29 31 29
-0.3149797838346519 -0.0850764258612711 6.5188938922739315 82 88 92
-0.9238388193517314 -0.3087609789859030 7.3641233182394688 161 155 154
-0.8168128153678844 -0.2012344056053986 7.3409256549595518 205 204 199
-0.3324718778426674 -0.0944837929561903 6.5873417652005273 47 40 38
-0.3323303300020645 -0.0867542536078141 6.5844755407199207 255 254 255
-0.3262664307964160 -0.1019555339861116 6.5679766589846116 47 40 38
-0.3236032202781464 -0.1044708693044917 6.5651502024419877 45 34 33
-0.4411240847490944 0.0090454072649509 7.6957299042596938 255 212 183
-0.4341997738351016 -0.3928028111449187 8.0166269245743678 255 255 255
-0.9164201924802955 -0.3215083348232256 7.3571531329047124 236 226 222
-0.6620308521499886 -0.2567387952550764 7.5820961554323487 255 255 255
-0.6793193739029421 -0.1764006768677361 7.5096029120266277 255 255 255
-0.6735978576114416 -0.2120275694156640 7.3666964071953052 149 161 164
-0.9137719606185303 -0.2182613725870363 7.3880586032120261 78 102 86
-0.8966314466104650 -0.2030014184099863 7.4154840207466428 213 223 225
0.0291100341607240 -0.0372487453719371 7.0309407243296409 150 166 172
-0.8703759782001753 -0.2193619718675059 7.3827516019208668 255 255 255
-0.6885970426751643 -0.1337849779236248 7.5389220867810103 255 255 255
-0.4727730325005451 -0.0201141931279007 7.3749891784154515 191 121 101
0.4854806828454841 -0.1235356245063277 7.8718467444125029 14 16 12
0.1922992493747790 -0.1454441120921423 6.5714384746902930 171 175 98
0.0306419468970748 -0.0465293184222397 7.0172741041110722 193 217 223
-0.0573319419892929 0.0157983132943935 7.0919583529650483 244 196 158
-0.3076250083024636 -0.0928468882522781 6.4989029115303216 247 255 255
-0.0369125912765069 0.0249260810961465 7.0390948281949983 52 42 46
-0.0815843188052369 0.0039159186869691 6.8274564056016871 220 196 160
0.0616488975628964 0.0239749207427106 6.8176804875840880 98 105 110
-0.3156713485091621 -0.0671806658219678 6.5442192814338904 14 12 17
-0.1271508809813540 -0.0102367409703240 6.6880528069604139 177 161 150
0.0516687787472183 0.0193276298171300 6.7304493322518422 135 116 94
-0.8925475570617397 -0.3214739054285737 7.3628238879087871 53 67 70
0.3991170135148517 0.0478255003107481 8.7543361587224204 104 90 65
-0.5325888839683790 -0.0414814819905124 7.4471986971881536 132 102 46
-0.3229095983816929 -0.0842668948691809 6.5309645685612256 77 90 97
-0.6484736832517182 -0.3903580952792481 7.5816447573691628 255 255 255
-0.9059627943806570 -0.3367201025501251 7.3626744395735093 238 229 211
-0.8254054853227412 -0.3151773275280136 7.3720289473524012 248 253 236
-0.3136559203449892 -0.0897733920025742 6.5262787112361487 255 255 255
-0.6628819634205386 -0.3139311048019839 7.3684352394650121 233 238 234
-0.9173994580939312 -0.3336429203155325 7.3616094264780125 164 168 155
-0.6664012766515257 -0.2907411531428007 7.3668494037296606 214 220 218
-0.6706522673052721 -0.2875275033736718 7.5102083886316562 253 239 219
-0.6320400178795016 -0.2768674557853261 7.3853575388494104 255 255 255
-0.8236963073609709 -0.2005427430175633 7.3614547712988383 212 216 205
-0.6772959381092591 -0.1636159455069662 7.3695438518420655 160 171 177
-0.6978085503020326 -0.0795174026056579 7.7138957683221223 45 31 31
-0.7064756517750884 -0.0701911149257307 7.7302086467909872 48 34 37
0.1172736884119838 -0.0265803617273079 7.0490424410527055 134 151 196
-0.6313121976002014 -0.0211122178996309 7.5675917441077942 251 252 235
-0.2391978903133474 0.0025990375468031 7.1451160401176059 182 175 161
0.1604569011041059 -0.0710671706308937 6.3164612243549572 176 189 216
0.1256582830823039 -0.0589483768780611 6.4059169035651022 180 247 255
0.0476177244223730 0.0215494511723730 6.8839324892304949 130 111 95
-1.1734379153833587 -0.6630579481509944 9.7574452243457106 229 255 255
-0.7878823767953497 -0.1365316877655164 8.3052000483726527 43 30 26
-0.6788880965499386 -0.1501087458588254 7.3725793459570399 117 120 108
-0.6362976856478155 -0.1450757653195191 7.0313204797586915 128 120 115
-0.6061245511953877 -0.1430292915015675 7.0116759431891245 114 123 121
-0.6658128415934635 -0.2903547759034475 7.3671869046484302 191 198 195
-0.6421809649749938 -0.2500523790800281 7.4023474027427092 255 255 255
-0.6625453889579648 -0.2415977337057860 7.3659393067745036 230 226 218
-0.6297418132684309 -0.0181520391306212 7.5627271844581010 255 251 220
-0.6528739135952953 -0.3530195697463328 7.3608778406751982 248 248 234
-0.6615728958867492 -0.3366346031056653 7.3681501535873588 231 235 247
0.2020041730776302 -0.2480958999570869 8.1854287763981066 165 130 89
0.1901431357360536 -0.1443077937230360 6.5721820824282293 216 241 114
-0.6891695392775515 -0.0959416179621212 7.9334900631327461 149 98 58
0.4009394223010984 0.0413671859427774 8.7848056117686184 109 87 62
-0.6828012037964950 -0.0991401415640098 7.5919479038713034 33 26 28
0.1903304242677908 -0.1403391517324274 6.5740390082404216 255 255 196
-0.6634210103383744 -0.3050971549124560 7.5920346837775972 255 253 255
0.1880832467997447 -0.1345929064484792 6.5739470631010537 93 98 90
-0.6496343826171385 -0.2421312926358014 7.3719566596309845 172 184 195
-0.6539923785438836 -0.2389408795907633 7.3890594596020041 245 226 193
0.4646325079855386 -0.1185192653719298 8.1101820705620220 57 62 60
-0.6704812756821406 -0.1762808959267779 7.3684198394605405 122 121 118
-0.6496742403571095 -0.1641425752977890 7.4555459589613378 103 99 90
-0.6234799772098184 -0.1043875056066287 7.8029567814399483 255 255 255
0.0365213422471653 -0.0135232305422169 7.0282492857497880 50 14 13
-0.4987439091372060 -0.0118094144743305 7.4619879335925736 62 63 65
-0.6692683851877919 -0.2774612661791552 7.5978036633734440 255 255 255
-0.3063023858603039 -0.2981874266848466 9.3330780549000565 255 252 238
-0.6443541363181722 -0.2451810043731513 7.3822751157675759 160 184 142
-0.6510090384471834 -0.2426199002377250 7.4106213640983221 255 255 255
-0.6737026208645140 -0.2392052154918015 7.5994494690831589 255 255 255
-0.6681567958761502 -0.2241766332647611 7.3677664081080918 131 128 131
-0.6752227144942218 -0.2131085363138106 7.5988385905358315 255 255 255
-0.4724736993999699 -0.0719988861901583 7.5928742735022414 53 55 66
0.0239535170955040 -0.0325024068258175 7.0993411475302386 36 40 33
0.0143422531767140 -0.0021809650080516 7.0731925100465194 20 22 21
-0.0290593254547441 0.0357575447224634 7.3616651082010449 255 255 255
0.0343761112415744 -0.0036748580574750 7.0231197414339475 107 124 151
-0.6935082779402680 -0.1192328972841105 7.6358707224896536 255 255 255
-0.6718828321754537 -0.1135112090186213 7.4647823432869682 41 33 36
-0.4360908164541921 -0.0447779169121433 7.5342923212053616 255 255 255
-0.6622060698629408 -0.1977013455185156 7.3744217940173487 179 180 175
-0.6863512120258527 -0.1775711954256682 7.4901922627023412 254 255 255
-0.6642936284354884 -0.1760105949541484 7.3742150129033455 173 186 194
-0.6807764187031414 -0.1636461612470878 7.3736183122731953 160 171 177
0.0688761253033146 -0.0636488390367928 7.1005621502770246 255 255 255
-0.7005719169770510 -0.0439871242183194 7.6638529913958617 104 114 95
0.0327964129366643 -0.0178372350339593 7.0322257008928721 128 117 111
-0.0692504773653624 0.0209069109896215 7.1307014454201108 111 100 91
-0.4159957275511512 -0.0030129427996323 7.2051307878261834 181 165 149
-0.0781737343667359 0.0146728814782717 7.0429334493264530 196 198 161
0.4324380161849690 -0.0136599561996689 8.2657578977781334 96 94 81
-0.5081815297589880 -0.0696395453589802 7.4384871105259558 255 196 155
-0.5052881087944698 -0.0637204512261685 7.4654316592935892 37 33 34
-0.5223224856291468 -0.0105782553412979 7.2120253664391019 148 135 136
-0.4960019299345304 -0.0071795072755282 7.1867717015351591 83 79 74
0.0753401802723852 -0.0599540751633907 7.1435710774761816 255 255 255
-0.6939842739431448 -0.1761667921486090 7.5318451806528639 255 255 255
0.0685349436177159 -0.0639837958314190 7.0537078966486755 255 255 255
-0.5105444293208222 -0.0803970038319559 7.4681243640187152 214 206 180
-0.6924274907295833 -0.0837264789649199 7.5528322357332369 166 103 84
0.0748198225060195 -0.0094188859646059 7.0350974458149720 90 75 52
-0.6538003116279928 -0.1207165219252195 7.3780491340657788 54 53 54
0.4806297138159344 -0.0589246666922218 7.8611420115435209 69 87 83
-0.6723064650117317 -0.1878452465726507 7.4639632742656286 121 121 109
-0.6890676314746197 -0.1662528176298056 7.5096567869945474 85 77 78
-0.6587703807926691 -0.1506447426756968 7.4040109460555641 255 255 255
0.1077996820363474 -0.0574758503638433 7.0795303035554502 255 255 255
-0.6837871801545126 -0.1360697039624589 7.3749633902306568 148 156 148
0.0513438313895016 -0.0674164297152321 7.0160311452821453 255 255 255
-0.6980439908661649 -0.1000037657860659 7.6323261844794095 170 155 132
0.1122628717918623 -0.0231514047278078 7.0886324318817202 27 12 16
0.0354052173087382 -0.0267356428321359 7.0321859449577380 75 25 26
-0.1670745285198006 0.0328337440872757 7.5202671483627093 204 191 160
0.0188052513432206 -0.0052500291538883 7.0702631293783140 99 115 132
0.0952073094047777 0.0006052292860968 7.0495531611627955 114 105 102
-0.4308748049704605 -0.0021385486754095 7.2149892745466735 171 154 122
-0.6607727105615379 -0.2421213128278525 7.3713173165182768 190 194 191
-0.6871919232461944 -0.1783126434129011 7.4469466562241742 111 115 127
-0.6709448508477147 -0.1601854586545756 7.4153730207937780 72 66 89
-0.6757152681834528 -0.1409516965002182 7.4565362064271650 92 98 117
-0.6623837802345865 -0.1384262502643676 7.3912795659409838 77 62 57
0.0756778971051994 -0.0099265645218047 7.0360335696303009 65 67 92
-0.0053908220344856 0.0295287098265377 7.2438907440823028 19 14 17
0.0173119258912958 -0.0231688352911338 7.0800033300953222 102 91 80
-0.8378366737644576 -0.3958283933387286 8.9576600841267471 83 104 180
-1.3657600458805170 -0.6044730127990244 14.5705963374290626 99 84 85
-0.2351287980372189 -0.2435690960664121 9.4849981915974393 240 255 249
-0.6605414323023182 -0.2253561120560935 7.4153395854989563 190 199 186
-0.6942259362994168 -0.1908528981779054 7.6104004938941694 54 34 34
-0.6873733317986837 -0.1652485973430382 7.5261868872529787 84 89 100
-0.6898344975928520 -0.1201869767081217 7.5116509111459617 148 144 147
-0.6966493169227063 -0.1001451400331661 7.6306136556124438 145 134 135
-0.7087383150663082 -0.0877891003595013 7.7061324693418571 255 251 199
-0.5887440739207648 -0.0717632871923209 7.7029727108107098 115 128 123
0.1009096717930395 -0.0267949139674096 7.0881806251896631 145 130 75
-0.4719271312324669 -0.0263165231201731 7.4386601971549382 124 108 131
0.0149079222159988 -0.0184371870207298 7.0623290868226016 204 203 194
0.0218084299994796 -0.0168528583270904 7.0504015672098568 180 155 151
-0.0675054468283089 0.0403452111455777 7.4407500092833292 136 113 112
-0.0236155877975574 0.0398840395987819 7.2703882638764226 51 44 49
-0.6803991370142566 -0.1608619716348520 7.4558341222001578 255 255 255
0.1128398656811895 -0.0289243473679134 7.0547257981439317 28 33 45
0.0388328133300642 -0.0334861710839638 7.0457689982406624 20 22 27
0.0423869898114668 -0.0156402516983698 7.0406565529418845 132 157 186
0.0258137296041694 -0.0094417473537298 7.0601036468080753 54 16 13
-0.5138799010829842 -0.0700509724199848 7.5001122218438745 166 172 140
0.0328156869997377 -0.0320141587088149 7.0412801384477657 182 203 201
0.0349487209869209 -0.0040321263309682 7.0216706382360261 107 123 151
-0.5315295367915741 -0.0309261299867813 8.0882652093123699 40 37 40
-0.9198474832506458 -0.1844832583837373 9.0718401975384300 64 63 43
-0.6900799586934163 -0.1821759325398622 7.5797375426757307 255 255 254
-0.6817523519363412 -0.1495406699591811 7.4786213804276036 169 178 191
-0.6982144037209439 -0.1278934623800659 7.6236048039883535 255 255 255
-0.6068636793693011 -0.0985393610833897 7.7615314495965864 79 47 43
-0.7341220408587035 -0.0994992730385733 7.8910860457684207 101 104 94
-0.7198561884908480 -0.0964483320052984 7.6867025834795868 78 61 53
-0.6860913098840205 -0.1022784245219534 7.5027786612300975 129 89 65
0.0037082698731709 -0.0200180765878789 7.1577733197499471 69 76 78
0.0152945340759640 -0.0235753958853403 7.0927885282941858 66 59 64
-0.4659677371842056 -0.0244887362450353 7.4482949556086524 124 117 124
0.0175597661537795 -0.0135033678003529 7.0817539453029514 183 193 187
-0.0383101178325749 0.0408602358656360 7.3485803800849192 255 255 228
0.4829617785053657 -0.1827213440428499 8.8152501061757054 182 164 120
0.0627470151355224 -0.1159155672706187 7.3393148929472307 32 28 26
-0.0415648990115913 -0.0304318556617021 7.8930577588393698 255 189 138
0.0466492173963375 -0.0658709068982685 7.0673923401629581 255 255 255
0.0305950021551481 -0.0245729738015986 7.0594186700211381 95 30 40
0.0375065473669667 -0.0208793442830806 7.0389205399997969 84 19 13
0.0245440200649338 -0.0299417120052787 7.0578315362390187 154 151 151
-0.6975333057497852 -0.1125009353712185 8.2431282073139922 255 255 255
-0.0268445085797363 -0.2686909831266348 8.2216006910216741 255 255 255
0.0433795436005432 -0.0647264386154935 7.0841576008640406 45 44 45
-0.6951394176023862 -0.1034938319203555 7.5446380977126797 187 151 144
-0.5106909075574513 -0.0700529085237203 7.4949405473281594 139 162 146
-0.7100630295353901 -0.0602233519836002 7.6480987789045738 40 32 34
0.0878766588372562 -0.0230777240162626 7.0484897649790526 20 19 16
0.1174709383230558 -0.0083545886457071 7.0641122681732940 165 126 94
0.0202396164728710 -0.0167552864641094 7.0533957363693549 197 191 172
0.0283789366012585 -0.0157033157233866 7.0425554479555084 89 114 113
-0.0502149640415468 -0.1766256032346689 8.1119008840514581 255 255 255
0.0385516272474872 -0.0577798053481677 7.0659826847461424 177 212 235
-0.7240395609190960 -0.3674612511670931 8.5021390820040583 56 50 48
0.4769371429496674 -0.0617040352616577 7.8525298447138363 78 81 76
-0.6986364877399812 -0.1497179350060008 7.6532227216949238 202 191 195
0.0042917285503158 -0.0281928744990946 7.2112252405155699 16 17 15
0.0149925687078064 -0.0197007328720574 7.1742567025270683 116 135 151
-0.6204670703769071 -0.0675289349975836 8.2127646392934235 47 49 59
0.1188801245428342 -0.0243434430349082 7.0633263604857657 117 145 163
-1.1939992983979588 -0.5525059992494240 15.1115699584789063 20 23 28
-0.8934943950543683 -0.1538998971472139 8.8779503487336200 39 68 80
0.1071121062612003 -0.0624246032344088 7.1023935749271061 168 166 141
-0.7000220320208865 -0.0295783603137313 7.6481102607949154 200 176 132
-0.7085275280660568 -0.0203690869467311 7.6408645020750683 34 36 41
0.0470850725658262 -0.0571631183496926 7.0591908422724794 21 24 29
-0.6952158359775124 -0.1721910328461117 7.6205607699473079 255 252 255
-0.5376537455443029 -0.0233562335997477 8.1156034535110120 166 127 110
-0.0010713460272203 -0.0065556355914796 7.3041607478650503 216 204 197
-0.0284196162175920 0.0459541352352810 7.5042481179087348 166 146 133
-0.2860464000936183 0.0186908641074454 7.5229081725827704 222 202 178
0.4466454421983709 -0.0351862231612051 8.0636765061986413 136 129 112
0.0334266882129271 -0.0655810166922508 7.1123454968387696 254 162 70
-0.5612245635374501 -0.0642474910748266 8.2309698386860184 255 255 255
-0.8276308817658014 -0.2779750779659531 8.4014123920934995 108 157 162
-0.9173673902128394 -0.2902082381343302 9.0567250075652730 63 93 84
0.4507188265766907 -0.0350049610738792 8.1252138002744481 125 133 124
0.0463629749554550 -0.0571421251199552 7.1935285967180089 255 255 255
0.0301491779569608 -0.0613162005156436 7.1604080991957568 13 14 17
0.0339972559986531 -0.0606759951956746 7.1628600383632373 255 255 214
-0.5148763760519750 -0.0898512060928325 7.6162723438438373 255 255 255
0.0429756414473302 -0.0628444476867964 7.0758492747765809 255 255 255
-0.4860716683076015 -0.0818440080203661 7.5267043825676607 49 37 33
-0.7374804935994748 -0.0935331447559018 7.7428825248727158 246 153 122
-0.4640582928715395 -0.0424846205504086 7.5536827841681031 152 193 206
-0.3779243059956145 0.0316673640931880 7.9184523873205501 117 87 67
-0.0000422591332243 -0.0245757183866144 7.1997366803815659 222 250 255
-0.5340016456936219 -0.0855859052965972 7.7021653946415007 68 65 69
0.0468613802390592 -0.0630872323423889 7.0769932452487687 255 255 255
-0.3291962910654979 0.0284000573945496 7.8207214750237402 254 229 192
-0.8591722436387180 -0.1446788058809213 8.4775710000604754 32 18 15
-0.6857874658220284 -0.0896250941290060 8.2130099083862067 255 255 255
-0.5361677526104280 0.0263362156002194 7.9388937623357760 255 247 198
-0.2914993253160103 -0.2561553768194615 9.3728811692159972 255 255 255
-0.9071444116377977 -0.3077386874125783 9.0570214213075726 246 250 254
-0.6421217953676693 -0.0745632162865607 8.2407974194961469 161 155 122
-0.5559870784499292 -0.0078446764616842 8.2586817910492556 85 80 75
-0.5435334443506499 -0.0052903483638747 8.1237938996770911 255 255 164
0.0019417991193612 -0.0191930688033021 7.2413222578870551 146 149 129
0.0112822410867690 -0.0201308205517701 7.2250649991756584 255 217 126
-0.4770338363764972 0.0227630090430319 7.7933021142678101 193 171 149
-0.7298129727190443 -0.0820354460281350 8.3688428863089523 39 41 39
-0.7479989307397709 -0.1085108780060220 7.8411798342911991 255 255 255
-0.5448083776015330 -0.0949281353188638 7.6268631021981266 255 238 163
-0.3251390275801511 -0.2589471786933447 9.4711379734798733 255 254 255
-1.1944330709289601 -0.3519539236954206 14.6097938172905337 232 241 255
-0.6295741742795963 -0.0302502531549812 8.1121160469138136 81 107 108
-0.4477086451397509 -0.0374381683410034 7.4752206139607207 51 46 48
-0.6163784102750289 -0.1049379314750083 7.7619829432254237 255 255 255
-0.8084902966596547 -0.2598099075899254 8.3354840111864057 89 75 70
-0.8589337997155115 -0.2060563001160333 8.6165695974827816 73 65 35
0.1386813891675215 -0.0308316788066434 8.7757125225733876 153 157 122
-0.6613205467637298 -0.0110071186105585 8.1202634921110501 253 228 160
-0.4737139950385257 -0.0231380059697069 7.7016705217743748 255 249 239
-0.6426339448040865 -0.0179530058250177 8.1010060112356097 23 22 21
-0.4838586954190732 -0.0130628037809189 7.7227564834702775 14 11 10
0.1355101153339194 -0.0298745575703746 8.7596612158226304 112 127 107
-1.1687780069799405 -0.3415764907199247 14.8090924930282863 196 238 255
-1.2608795164513256 -0.2941585177636347 11.3517357026038574 67 63 51
-0.8736162643613964 -0.1773595655402185 8.6457692875240806 158 163 176
-0.2975976068534794 0.0588786593511244 9.1897072176689214 87 71 46
-0.6275873541152998 -0.0305173179282288 8.1086019576338675 117 134 107
-0.8342017502444639 -0.0302966500457118 8.3167009130063825 90 63 42
-0.4046012627699904 0.0375374102288613 7.9370811041522478 70 62 66
-0.8254493282093054 -0.0168537614178801 8.3315369876840109 26 24 26
-0.5892564610081026 0.0198216258847873 7.9931475360194231 36 30 27
-0.8850255487213999 -0.0969103108421270 8.3926100443995484 255 255 255
-0.5522114458938163 0.0237240724206272 8.0389111626382661 31 30 31
-0.0487445301119586 -0.0342334822133047 7.8242137296412162 87 96 74
-0.1229731303040283 -0.2279761553231772 9.4864738842662373 65 79 92
-1.6035809401631616 -0.6841720200280880 14.5896747226673380 45 47 51
-0.8226492834134576 -0.0806013772543397 8.2418440300507658 252 203 167
-0.5399584874743653 -0.0435242569705028 8.1721169814841694 37 42 46
-0.8227947208759671 -0.0491796031074786 8.2626570927262577 233 183 154
-0.8281408834002940 -0.0211230871812127 8.3125662620762970 228 191 163
-0.5453869893826850 -0.0044744682251923 8.1271424549871050 255 255 239
-0.5485855312689850 0.0041076520914172 8.1877448104914414 15 13 15
-0.5262573264105418 0.0529212685674556 8.4283714184610918 198 183 160
-0.5474273714801771 0.0356656274384811 8.1747983515659346 175 141 118
-0.5714940416284621 0.0290711899263234 8.0113177231266359 255 192 159
-0.2783306002713103 -0.2148571746088913 9.3879098017405749 29 29 27
-0.8240665927195089 -0.1480916193149831 8.3506226356177269 16 15 14
-0.5795563489561923 0.0235605917197969 8.0076296175840600 54 40 34
-1.0067186865822528 -0.0080931084068374 9.6715873303416284 47 51 31
-0.6578888260636764 -0.0045391439978569 8.1141786839046262 255 217 177
-0.2745802258845247 0.0484367907583253 9.6174026486126554 12 13 16
-0.1350068948921668 -0.2055421633467801 9.4544652395646871 211 208 131
-0.8559335099982052 -0.1832142947427479 8.5870918035242898 255 255 255
-0.8229203259614025 -0.1044015757984480 8.3382058311844869 18 17 13
-0.8318392692254559 -0.0803502858835249 8.2847610710128698 249 189 158
-0.8260674576961975 -0.0772820208361938 8.2938712900126887 208 158 126
-0.5271338532027807 -0.0434616451825726 8.1743835767876050 21 21 21
-0.8166801050468945 -0.0565545740749345 8.2616821437134611 112 98 88
-0.8165610367300450 -0.0533377809073130 8.2019826676166119 31 31 28
-0.8150751775154322 -0.0414986247792625 8.2383760931649697 95 93 85
-0.8178855057528810 -0.0334519126411897 8.2350133711965512 234 185 151
-0.8115346716298973 -0.0290354681065111 8.2398017961209131 54 37 21
-0.8152732882010398 -0.0284189407642184 8.2187105255618746 158 86 68
-0.5514029693702632 0.0064027160786518 8.1553503977622075 37 44 45
-0.9406047679373062 -0.1214877637104899 9.3797838255955757 233 234 185
-1.0379441150701725 -0.0067733641349297 10.7657148600582673 211 228 255
-0.1446540381461481 -0.1939207227057245 9.4786774823271696 30 34 24
-0.7898482027506113 -0.1109470703548713 8.4207064676925114 255 255 255
-0.9910929478573854 -0.4107373078777582 9.9599174063722042 255 255 255
-0.1931924489572798 -0.1778856249414900 9.4876992380849199 146 128 127
-0.8518999203701181 -0.1741942964707941 8.5879104479898913 123 115 119
-0.5754339089058229 -0.0384310274093217 8.2501339675504557 40 40 29
-0.8266202471596646 -0.0601091803629008 8.3009054517390730 255 219 190
-0.5559299002781488 -0.0037413960795273 8.1936306665719947 15 11 12
-0.5500802140084990 0.0088056812309084 8.1670977297489440 128 125 115
-0.8125803098347050 -0.0109046255491975 8.1862714157774530 30 22 27
-0.5301413206907017 0.0342975353213777 8.1065800288251975 207 152 130
-0.9084805044021436 -0.1672129301173331 9.0076705024752108 53 44 28
-0.8344306363681806 -0.0961762139530880 8.2994896067885886 255 255 255
-0.7975032814898210 -0.0067458208902361 9.1395057994607072 221 157 165
-0.2073160776473698 -0.1505699506064873 9.4840550770827914 255 175 93
-0.6470295642766025 -0.0646560197238210 8.2165276406729646 87 83 98
-0.3399715481802175 0.0915417384476634 9.0552960018838853 57 61 61
-0.1985821616066480 0.0625341456333528 8.0956722952829683 255 217 187
-0.8718074710699535 -0.2075675426392818 8.6359880410685044 40 37 29
-0.2825489170772836 -0.2552813212441068 9.4683671214561826 56 56 42
-1.1505651455904684 -0.3393270621288547 10.6704068281420863 145 156 128
-0.8965733612130559 -0.1126275945967759 8.9899679533340766 88 112 51
-0.0308392855738312 -0.0264119995010480 7.9275814977815813 167 218 207
-0.0048809858941998 -0.0230843263364358 7.8760374422110750 78 88 86
-0.8741245085211387 0.0228263912926022 9.2148119361433682 75 74 62
-0.7702324569161233 0.0647476927728858 8.9108968536483566 52 49 51
-0.5454959760436333 -0.0035710187301277 8.1458009009903876 228 194 164
-0.0513786403518359 0.0166747023647585 7.8242822329589776 96 93 72
-0.0350156823330359 0.0211180796892765 7.8260381754735642 99 99 87
-0.5787384041686400 -0.0234995174161649 8.1071791206730612 42 79 65
-0.4115436807101852 0.0554876683460980 8.4920161185945062 63 63 70
-0.8500844881705701 -0.2313678590922179 8.6042770354176312 38 31 24
-0.0821638964432542 0.0040393644926959 8.0108916957984562 107 107 95
-0.5717823840243965 -0.0315299071971788 8.2556090124941690 143 184 217
-0.5462757739411347 0.0078248798011532 8.1603494790885733 128 125 115
-0.8841736617045067 -0.1202892317794605 8.9191625591815473 242 198 150
-0.8480621234099077 0.0500588121284573 9.1504086836906993 55 61 63
-0.5496928046194351 -0.0209203460813493 8.1388821657195454 170 72 10
-0.5768630685542856 0.0030563633090757 8.3724710404817433 19 16 16
-0.9129320395711195 -0.1713482456217158 8.9174269169135307 36 43 41
-0.5367381123115357 -0.0348185644025896 8.1918280823371887 143 184 217
-0.8786441900745802 -0.1916581479060164 8.6852001650625930 46 40 36
-0.8773401664956632 -0.1839131276217231 8.6427766717011352 237 187 153
-0.8672187116810161 -0.0344229415968126 9.4502311550648752 255 144 143
-0.5517670564282154 -0.0199714753909796 8.2589595779642444 121 184 191
-1.0496568307279190 -0.1225537678281521 10.3122194962148566 58 75 63
-0.5947934003431649 0.0716695338553028 8.9349851983634352 69 58 63
-0.2646695635982764 -0.2590436434776250 9.3590125889154674 139 215 112
0.0321390757103743 -0.1436352728972188 9.2460914338364724 67 66 60
-0.8915727120996326 -0.2345953751489184 8.8735814273353064 255 255 255
-0.8723869891111597 -0.2175655832974906 8.6617832028344246 180 238 228
